# .PCD v0.7 - Point Cloud Data file format
VERSION 0.7
FIELDS x y z
SIZE 4 4 4
TYPE F F F
COUNT 1 1 1
WIDTH 1560
HEIGHT 1
VIEWPOINT 0 0 0 1 0 0 0
POINTS 1560
DATA ascii
153.39317 -396.42661 976.96448
156.39081 -396.4678 976.85291
151.38519 -415.5101 982.36194
153.34428 -414.93729 981.00757
152.8705 -194.7291 904.38013
152.97107 -232.37778 917.9939
153.04012 -250.36166 925.04694
154.07971 -250.48233 926.09851
156.07741 -250.0629 925.87494
154.14944 -268.91312 933.30066
156.14789 -268.94058 933.2262
152.34431 -414.47659 980.89563
154.34274 -414.504 980.82135
152.90944 -193.94217 905.17065
152.97847 -211.92612 912.22369
153.97772 -211.93985 912.18652
153.00929 -231.14389 918.63531
154.00854 -231.15768 918.59821
157.0759 -249.62961 925.6886
154.17883 -287.23715 939.41406
150.38457 -414.60251 982.10089
152.82939 -194.17526 903.14233
153.90721 -193.06204 904.83521
153.00858 -230.69699 918.48621
154.00783 -230.71072 918.44904
154.07828 -249.58847 925.80029
156.07671 -249.61594 925.72583
157.14494 -267.61356 932.74164
153.17892 -286.77646 939.30219
149.42427 -413.80185 982.92859
153.38219 -414.64371 981.98926
154.00639 -229.8168 918.15082
157.00401 -229.858 918.03918
153.03868 -249.46786 924.74878
153.10703 -267.00485 931.65271
157.10458 -267.50662 931.65302
154.21535 -286.04977 940.09753
150.42349 -413.81558 982.89136
153.42041 -413.40982 982.63068
155.3398 -413.17697 980.33679
156.33902 -413.19077 980.29956
153.03726 -248.57401 924.45056
156.07527 -248.72202 925.42761
157.07446 -248.73581 925.3905
153.03152 -244.99863 923.25763
157.16788 -281.91525 937.51312
148.464 -413.00131 983.75623
150.46172 -412.58176 983.53271
153.38075 -413.74985 981.69104
156.37794 -412.40378 981.08997
148.5022 -411.76736 984.39758
150.42134 -412.47482 982.44397
153.41898 -412.51596 982.3324
156.37724 -411.95688 980.94092
156.41615 -411.16995 981.73132
153.25275 -332.80978 954.66034
152.9503 -219.41696 913.66986
151.29272 -357.85666 963.12689
154.29282 -358.29825 963.12231
150.4603 -411.68796 983.2345
151.45874 -411.25473 983.04822
153.2496 -331.96237 954.40424
157.98532 -218.69858 914.27429
150.26085 -411.5538 977.89807
152.41759 -411.16147 981.92224
155.4153 -411.20273 981.81061
156.24895 -331.95712 954.25049
152.94955 -218.97 913.52069
151.25932 -411.12057 977.71179
152.25856 -411.13431 977.67456
151.41765 -410.70078 981.81036
153.24817 -331.06857 954.10596
154.24908 -331.03586 954.02673
152.94814 -218.07614 913.22247
157.98389 -217.80478 913.97607
154.28825 -356.5571 962.56799
151.41695 -410.25388 981.66125
152.41615 -410.26767 981.62408
153.41611 -410.72824 981.73602
155.41457 -410.75571 981.66156
156.24678 -330.61642 953.80316
155.09351 -234.51364 921.7821
153.2081 -330.02133 952.677
153.24744 -330.62167 953.95685
154.24667 -330.63541 953.91968
157.98317 -217.35776 913.82697
152.41472 -409.37375 981.32587
155.37277 -409.75497 980.27466
156.24536 -329.7225 953.50494
157.98174 -216.46396 913.52875
153.41396 -409.38754 981.2887
155.41171 -408.96799 981.06506
152.94597 -216.73538 912.77515
151.2505 -355.46872 961.25061
155.37161 -407.92081 979.63611
153.24701 -329.23441 953.46741
154.28706 -354.72293 961.9295
154.25339 -333.71738 954.92139
152.29391 -408.11276 977.71948
153.41252 -408.49368 980.99048
154.41174 -408.50742 980.95325
155.37091 -407.47385 979.48706
157.36929 -407.50131 979.41266
153.20668 -329.12753 952.37872
153.41109 -407.59982 980.6922
152.9424 -214.5007 912.0296
154.28395 -353.87558 961.67328
152.29247 -407.21884 977.42126
153.37001 -407.04599 979.45441
150.3867 -415.94333 982.54822
152.40971 -406.24533 980.28204
155.40741 -406.28647 980.17047
156.3672 -405.69998 978.85339
151.31874 -349.02505 961.2334
154.28278 -352.04135 961.03479
153.40894 -406.259 980.245
154.20227 -326.90665 951.59607
156.2007 -326.93411 951.52155
153.02003 -237.84775 920.87195
153.36714 -405.25827 978.85803
155.40526 -404.94565 979.72314
154.24167 -351.48752 959.797
155.44417 -404.15878 980.51355
156.44334 -404.17245 980.47644
156.23819 -325.25327 952.01385
153.36572 -404.36441 978.55981
156.36362 -403.46524 978.10785
157.97314 -211.10092 911.73944
155.44275 -403.26492 980.21539
156.44191 -403.27866 980.17822
152.93666 -210.92532 910.83679
152.36505 -403.45688 978.29877
153.36427 -403.47055 978.2616
152.93594 -210.47836 910.68762
153.44286 -402.3436 979.99164
155.23399 -322.11105 951.00739
155.97182 -209.28574 911.21741
152.24493 -402.64267 974.84149
152.32425 -401.96274 976.7207
152.89485 -209.92453 909.44983
150.22194 -412.34073 977.1076
154.27393 -347.61862 959.58575
154.24622 -329.2482 953.4303
153.36142 -401.68283 977.66516
154.24478 -328.35428 953.13208
157.9796 -215.1232 913.08142
152.32281 -401.06888 976.42249
155.35942 -400.32303 977.10132
153.19377 -321.08286 949.69476
156.23245 -321.67783 950.82104
152.93236 -208.2438 909.94208
154.27487 -347.12521 959.39465
158.00969 -233.89401 919.34399
156.39726 -400.4902 978.19489
154.19295 -321.09659 949.65765
156.0098 -232.97275 919.12012
156.35718 -399.4429 976.76587
153.19307 -320.63596 949.54572
153.27252 -346.26413 959.17566
154.27176 -346.2778 959.13843
153.39819 -399.55515 978.0083
155.35728 -398.98227 976.65399
153.01503 -234.71927 919.82819
153.39746 -399.10825 977.85919
156.18922 -319.78329 949.13586
157.96526 -206.18466 910.09924
152.15271 -320.06833 948.34515
156.18851 -319.33627 948.98669
154.27058 -344.44363 958.5
152.35789 -398.98764 976.80768
153.3564 -398.55441 976.6214
154.23976 -325.2258 952.08838
154.22949 -343.88986 957.26221
152.31636 -397.04648 975.08051
155.35297 -396.30075 975.75928
157.35136 -396.32822 975.68494
152.07315 -270.45963 931.79407
154.22878 -343.4429 957.11304
155.35226 -395.85379 975.61023
156.35143 -395.86752 975.573
154.26532 -342.25546 957.79645
155.96107 -202.58182 908.98077
156.26471 -341.78952 957.53088
152.31279 -394.81186 974.33496
152.35216 -395.4122 975.61481
155.35085 -394.95993 975.31201
156.32993 -382.45981 971.09979
152.88411 -203.22067 907.2132
152.26472 -340.8873 957.42358
153.26395 -340.90097 957.38635
154.26317 -340.91476 957.34912
153.00357 -227.56845 917.44238
154.23474 -322.09732 951.04456
155.34938 -394.06613 975.01373
157.34778 -394.09354 974.93939
151.2648 -340.42661 957.31165
153.26321 -340.45407 957.2373
153.35066 -394.97897 975.42847
152.26399 -340.44034 957.27448
156.23102 -320.78403 950.52277
152.99998 -225.33389 916.6969
157.30455 -392.19894 973.25427
152.91852 -224.67313 914.37042
153.18015 -312.59128 946.86169
156.21672 -311.84543 947.54059
152.99712 -223.54617 916.10046
154.38379 -391.07736 975.138
156.38222 -391.10471 975.0636
153.25819 -337.32565 956.19348
154.25912 -337.29282 956.11426
156.25754 -337.32028 956.03979
152.3056 -390.34262 972.84387
152.34499 -390.9429 974.12372
153.38385 -390.61661 975.02612
157.30167 -390.41122 972.65784
154.17789 -311.71115 946.52637
154.25769 -336.39902 955.81598
157.30096 -389.96432 972.50873
154.17647 -310.81735 946.22815
156.1749 -310.84482 946.15369
152.87479 -197.41068 905.27478
154.25697 -335.95206 955.66687
153.38242 -389.72275 974.72791
156.34068 -389.16367 973.33643
152.17587 -309.44907 945.85522
153.87259 -196.53049 904.93939
153.31792 -349.49948 961.30811
153.25633 -335.04446 955.40588
154.25385 -335.10464 955.41077
155.25479 -335.07187 955.33142
156.25395 -335.0856 955.29419
152.3414 -388.70834 973.37817
155.21106 -307.80948 946.23584
152.91158 -195.28293 905.61792
153.25319 -334.19711 955.14972
154.2541 -334.16428 955.0705
152.99281 -220.86459 915.20581
155.33836 -388.30258 973.11743
152.17374 -308.10837 945.40784
157.90765 -195.35153 905.43195
156.25252 -334.19174 954.99603
152.3407 -388.26144 973.229
152.91086 -194.83603 905.46887
152.87192 -195.62296 904.67834
155.25264 -333.73117 954.88416
156.25182 -333.74484 954.84692
152.33926 -387.36752 972.93091
154.37807 -387.5018 973.94513
155.17067 -307.70255 945.14716
157.90692 -194.90463 905.28284
152.13336 -308.00143 944.31921
154.90714 -193.52267 904.94714
154.24954 -332.42313 954.51605
155.29134 -357.8652 962.93597
155.16994 -307.25565 944.99805
156.16916 -307.26938 944.96082
155.1685 -306.36179 944.69983
153.86826 -193.84897 904.0448
152.25038 -331.94882 954.44135
154.24811 -331.52927 954.2179
157.9846 -218.25168 914.12518
152.91948 -200.19913 907.25806
152.3371 -386.02676 972.48346
155.33507 -385.12759 972.03162
153.39674 -398.66122 977.71008
152.28316 -401.40891 975.48291
152.13121 -306.66061 943.87183
153.13043 -306.67435 943.83466
152.86833 -193.38828 903.93286
156.33279 -384.24753 971.69617
153.16867 -305.44052 944.47601
154.16858 -305.90109 944.58795
155.16779 -305.91483 944.55072
156.16701 -305.92856 944.51355
157.90334 -192.67001 904.53729
152.2963 -384.53256 970.90546
155.16635 -305.02097 944.2525
152.29485 -383.6387 970.60724
153.33418 -384.69968 971.99902
155.33292 -383.78677 971.58429
156.33209 -383.80051 971.54706
152.3586 -399.43454 976.95679
152.16872 -304.97983 944.36407
153.16797 -304.99356 944.3269
156.16557 -305.03464 944.21533
155.33147 -382.89291 971.28607
152.16728 -304.08597 944.06592
152.9044 -190.81369 904.12683
156.01076 -208.49875 912.00781
152.29343 -382.74484 970.30896
152.33351 -383.79208 971.73792
153.33203 -383.35886 971.5517
152.37296 -408.37302 979.9389
152.13837 -311.12985 945.36298
153.33131 -382.91196 971.40259
153.37167 -383.01889 972.49127
152.16585 -303.19211 943.7677
155.16422 -303.68015 943.80518
154.20512 -328.69431 952.1925
152.33138 -382.45139 971.29071
153.3306 -382.46512 971.25342
153.37024 -382.12497 972.19312
154.36945 -382.13876 972.15582
155.35583 -398.08841 976.35577
157.35423 -398.11588 976.28143
151.38734 -416.85086 982.8092
157.11102 -271.52902 932.99493
152.96391 -227.90854 916.50287
153.36954 -381.67807 972.04395
154.36874 -381.6918 972.00671
153.3688 -381.23123 971.89478
156.36646 -381.27243 971.7832
153.96719 -180.31497 902.68848
154.16212 -301.87875 943.24597
151.38448 -415.0632 982.21283
152.16299 -301.40439 943.17126
154.95708 -174.51871 900.71283
155.26268 -339.98813 956.97162
153.3681 -380.78427 971.74573
156.36572 -380.82541 971.63409
149.4257 -414.69577 983.22681
155.16063 -301.44559 943.05969
156.15985 -301.45932 943.02246
152.45868 -411.7153 983.16003
153.85823 -187.59201 901.95721
151.32855 -380.20297 970.58228
153.36667 -379.89041 971.44751
153.40631 -379.55038 972.38708
156.36429 -379.93161 971.33594
151.42267 -413.82932 982.85413
151.38377 -414.61624 982.0636
154.38144 -414.65744 981.95203
157.96956 -208.86624 910.9939
152.45653 -410.37448 982.71277
153.85751 -187.14505 901.80817
152.42046 -412.94919 982.51868
154.38 -413.76364 981.65387
153.00598 -203.98837 910.62836
156.35933 -400.78378 977.2132
154.90642 -193.07571 904.79803
152.28697 -378.7225 968.96698
153.32486 -378.88962 970.06061
151.42123 -412.93539 982.55591
152.41974 -412.50223 982.36963
152.11974 -299.5098 941.48615
152.15941 -299.16977 942.42578
153.85681 -186.69815 901.659
152.32494 -378.42905 969.94867
153.32416 -378.44272 969.9115
156.32205 -377.54367 969.45959
151.42052 -412.48856 982.4068
154.37857 -412.86972 981.35565
155.15704 -299.21097 942.31415
156.15555 -298.7778 942.12781
153.85464 -185.35739 901.21167
152.28554 -377.8287 968.66882
153.32341 -377.99582 969.76239
153.36308 -377.65573 970.70197
155.15559 -298.31711 942.01581
152.2841 -376.93478 968.37061
153.32271 -377.54892 969.61328
153.36235 -377.20883 970.55286
156.32133 -377.09665 969.31042
151.41837 -411.14774 981.95947
154.41676 -411.63596 981.99695
152.15796 -298.27591 942.1275
156.15482 -298.33084 941.97864
157.15331 -297.89755 941.79236
153.85394 -184.91043 901.06262
156.3199 -376.20285 969.01221
152.15654 -297.38205 941.82922
153.15579 -297.39584 941.79205
155.15417 -297.42331 941.71765
153.85323 -184.46347 900.91345
153.32199 -377.10202 969.46411
154.32051 -376.66879 969.27783
155.28033 -376.08212 967.96075
156.27953 -376.09592 967.92358
152.11688 -297.72214 940.88971
153.15506 -296.94894 941.64294
155.15346 -296.97629 941.5686
157.15187 -297.00375 941.49414
152.89294 -183.66287 901.74109
152.32133 -376.19443 969.20312
153.36023 -375.86807 970.10553
155.2796 -375.63535 967.81165
156.27882 -375.64902 967.77441
152.16013 -299.61667 942.57483
152.11543 -296.82822 940.59143
152.36024 -375.40744 969.99365
153.31982 -375.76114 969.01685
155.31856 -374.8483 968.60211
156.31773 -374.86203 968.56494
152.35002 -394.07138 975.16748
152.3199 -375.30057 968.90491
153.31912 -375.31424 968.86774
155.35722 -375.00168 969.73285
153.35806 -374.52731 969.65826
156.3557 -374.56851 969.54657
153.31841 -374.86728 968.71857
153.35736 -374.08041 969.50909
156.35498 -374.12155 969.39746
154.16928 -306.34805 944.73706
155.31543 -374.00095 968.34595
156.35451 -372.73434 968.90802
152.2619 -363.08017 963.74823
152.90727 -192.60141 904.72333
155.25121 -332.83731 954.58594
152.27837 -373.35947 967.17773
152.31703 -373.51279 968.30847
153.31696 -373.97348 968.42041
153.35591 -373.18649 969.21088
156.35355 -373.22769 969.09924
153.31554 -373.07962 968.12219
153.35519 -372.73959 969.06177
154.3551 -373.20029 969.17371
156.35307 -371.84042 968.6098
152.2674 -391.57651 972.20251
154.16714 -305.00717 944.28979
152.90585 -191.70755 904.42505
153.35449 -372.29269 968.91266
154.35368 -372.30643 968.87543
155.32545 -380.2579 970.43353
154.20609 -304.22031 945.0802
153.31483 -372.63266 967.97308
155.31258 -372.21323 967.74951
156.31203 -371.28671 967.37201
154.25674 -360.87302 962.92834
153.20374 -303.35922 944.86127
153.31339 -371.73886 967.67487
156.31128 -370.83969 967.2229
152.32707 -379.76981 970.396
152.20451 -303.34555 944.89844
154.20296 -303.37302 944.8241
153.77629 -161.56345 892.22021
152.27408 -370.67783 966.28308
154.29567 -360.08603 963.71875
155.29492 -360.0997 963.68152
155.36441 -379.47098 971.22394
153.203 -302.91232 944.71216
155.20317 -302.89328 944.59564
152.31274 -370.83127 967.41382
153.35233 -370.95187 968.46533
153.31197 -370.845 967.37665
155.3114 -370.379 967.11108
155.36298 -378.57706 970.92578
154.39383 -397.3342 977.22552
156.20236 -302.90701 944.55841
152.90227 -189.47293 903.67957
153.35091 -370.05807 968.16711
154.31049 -370.41183 967.19031
155.30998 -369.4852 966.81274
155.34935 -370.08554 968.09265
156.34853 -370.09921 968.05548
155.39476 -397.30148 977.14624
156.20094 -302.01315 944.26025
152.90083 -188.57907 903.38129
152.31203 -370.38437 967.26471
153.31125 -370.3981 967.22748
156.34782 -369.65231 967.90637
153.16295 -301.86508 943.28308
153.3098 -369.50424 966.92932
154.30904 -369.51791 966.89209
156.30771 -368.60507 966.47736
154.39168 -395.9935 976.7782
152.89941 -187.68515 903.08307
152.27121 -368.89017 965.68665
152.30988 -369.04361 966.81738
153.93686 -186.46506 903.68732
153.16223 -301.41812 943.13403
154.16069 -300.98495 942.94775
152.26978 -367.99631 965.38843
152.30916 -368.59665 966.66821
153.30838 -368.61032 966.6311
155.30782 -368.14444 966.36554
156.30699 -368.15817 966.32831
155.19958 -300.6586 943.8501
156.19807 -300.22543 943.6637
148.42433 -413.34128 982.81665
155.19815 -299.76474 943.55188
156.19734 -299.77853 943.51471
152.30844 -368.14975 966.51917
153.30722 -366.77621 965.99255
153.30765 -368.16342 966.48206
154.3069 -368.17722 966.44482
156.2652 -367.15744 964.94141
151.46091 -412.59543 983.49548
154.15854 -299.64413 942.50043
156.19592 -298.88467 943.21649
152.30701 -367.25589 966.22095
154.30545 -367.28342 966.14655
156.30412 -366.37045 965.73181
148.42291 -412.44736 982.51843
155.19673 -298.87088 943.25366
152.89581 -185.45059 902.33752
151.34669 -366.45517 967.04871
153.30621 -367.26962 966.18384
153.34517 -366.48264 966.97424
154.30499 -365.89609 965.65723
149.42213 -412.46109 982.4812
153.15866 -299.1835 942.38849
152.30556 -366.36203 965.92273
153.30479 -366.3757 965.88556
154.34366 -366.04947 966.7879
153.08267 -251.80936 926.58301
155.34291 -366.0632 966.75067
156.30341 -365.92355 965.58276
152.26547 -365.31479 964.49377
153.34372 -365.58878 966.67603
154.34294 -365.60251 966.63885
155.30252 -365.95627 965.66199
155.30281 -365.01596 965.32172
156.30197 -365.02969 965.28448
156.1534 -297.43704 941.68042
152.30486 -365.91507 965.77362
154.34221 -365.15561 966.48969
156.30125 -364.58273 965.13538
154.19389 -296.62259 942.54535
152.34305 -364.68124 966.41492
153.343 -365.14182 966.52698
152.26404 -364.42099 964.19556
152.34233 -364.23428 966.26587
154.30186 -365.04874 965.401
152.25449 -383.53183 969.51855
151.41623 -409.80698 981.51215
152.41545 -409.82071 981.47498
152.15579 -296.93515 941.68024
152.2626 -363.52707 963.89734
152.30199 -364.12741 965.17719
153.30121 -364.14114 965.14001
153.34158 -364.24802 966.2287
155.30066 -363.67514 964.87439
151.4155 -409.36002 981.36304
154.41318 -409.40121 981.25146
152.15437 -296.04129 941.38196
153.15363 -296.05502 941.34473
154.1528 -296.06876 941.30762
155.15202 -296.08249 941.27039
155.19171 -295.74246 942.2099
156.19089 -295.7562 942.17267
155.29922 -362.78128 964.57617
156.27045 -345.36496 958.72375
155.19099 -295.2955 942.06079
152.89009 -181.87521 901.14471
152.30127 -363.68045 965.02808
155.90636 -193.53647 904.90985
153.33942 -362.9072 965.78137
155.29849 -362.33432 964.42706
156.29767 -362.34811 964.38989
153.15221 -295.16122 941.04651
154.15138 -295.1749 941.00934
155.1506 -295.18863 940.97205
151.1819 -362.85263 961.60803
152.29984 -362.78659 964.72986
154.14993 -294.2811 940.71112
155.18956 -294.40164 941.76257
156.18875 -294.41537 941.7254
152.88936 -181.42819 900.99561
152.26047 -362.18631 963.45001
152.33875 -361.99966 965.52032
153.338 -362.01334 965.48315
153.29906 -362.80032 964.69263
155.2581 -362.22751 963.33838
152.15222 -294.70047 940.93457
153.19038 -293.92734 941.68787
154.18959 -293.94101 941.65063
153.29762 -361.90646 964.39453
154.29782 -361.42685 964.16614
156.29625 -361.45432 964.09167
153.92612 -179.76114 901.45068
152.1508 -293.80667 940.63647
153.15004 -293.8204 940.59924
155.18883 -293.95474 941.6134
155.14844 -293.84781 940.52478
156.18803 -293.96848 941.57623
154.29639 -360.53293 963.86786
155.29564 -360.54666 963.83069
154.18816 -293.04721 941.35254
155.14702 -292.95401 940.22656
155.18741 -293.06088 941.31531
153.29691 -361.45956 964.24536
154.25601 -360.42606 962.77917
152.14935 -292.91281 940.33813
153.14861 -292.92661 940.30096
156.18517 -292.18076 940.97986
153.29576 -359.6254 963.60681
156.29338 -359.6666 963.49524
153.92395 -178.42038 901.00336
153.14789 -292.47958 940.15186
153.18581 -292.186 941.13354
154.18671 -292.15329 941.05426
155.18597 -292.16696 941.01703
156.14479 -292.07394 939.89111
152.88577 -179.19363 900.25
152.25687 -359.95163 962.70453
152.29553 -360.10507 963.83521
153.25612 -359.96542 962.66724
152.14864 -292.46585 940.18909
155.14557 -292.06015 939.92834
157.14398 -292.08755 939.85394
155.29349 -359.2059 963.3833
153.1851 -291.73911 940.98444
154.186 -291.70639 940.90515
155.18454 -291.27316 940.71881
152.88434 -178.29977 899.95178
151.1769 -359.72415 960.56427
152.40683 -404.45761 979.68567
155.18384 -290.82626 940.5697
156.18301 -290.84 940.53247
152.254 -358.16403 962.10809
153.29503 -359.17844 963.4577
154.29424 -359.19217 963.42059
152.8829 -177.40591 899.65363
151.21443 -358.0433 961.05658
156.25085 -358.2189 961.95917
152.8822 -176.95895 899.50452
151.25337 -357.25632 961.84705
152.29266 -358.31735 963.23877
153.29189 -358.33109 963.2016
153.1436 -289.79807 939.2572
154.14276 -289.8118 939.22009
150.25319 -357.73605 962.07538
153.33011 -357.0972 963.84296
153.29047 -357.43723 962.90338
155.2899 -356.97128 962.63776
156.28908 -356.98495 962.60059
153.32939 -356.6503 963.69385
155.28847 -356.07742 962.3396
155.32784 -356.67776 963.61945
156.32701 -356.6915 963.58228
154.40242 -402.69736 979.01483
154.14134 -288.91794 938.92181
155.14056 -288.93167 938.88458
150.252 -355.90189 961.43689
152.32944 -356.18961 963.58191
156.28693 -355.64426 962.15326
153.14143 -288.45737 938.80988
154.14061 -288.47098 938.77271
155.13983 -288.48471 938.73553
154.28754 -356.1102 962.41888
154.32788 -356.21713 963.50751
156.32584 -354.85727 962.94366
154.17955 -287.68405 939.56323
155.1384 -287.59091 938.43726
157.17719 -287.72519 939.4516
150.25128 -355.45499 961.28772
152.24899 -355.03549 961.06433
152.28908 -356.08273 962.49323
153.2883 -356.09641 962.45612
153.32724 -355.30948 963.24658
156.28549 -354.7504 961.85504
153.28688 -355.20261 962.15784
155.28632 -354.73666 961.89221
155.17738 -286.80392 939.22778
156.17657 -286.81766 939.19055
152.87717 -173.83054 898.46075
155.28488 -353.84274 961.59406
156.2444 -354.19656 960.61725
152.17726 -286.36227 939.2323
153.17648 -286.37607 939.19519
154.13776 -286.68332 938.17627
155.17667 -286.35703 939.07861
156.17586 -286.37076 939.04138
157.17506 -286.38449 939.00427
152.28722 -353.80161 961.70569
153.28543 -354.30881 961.85962
156.28334 -353.40964 961.40771
152.1386 -286.20889 938.10156
153.13785 -286.22263 938.06439
156.17511 -285.9238 938.89233
152.87575 -172.93668 898.16254
153.32437 -353.52182 962.65015
156.28262 -352.96268 961.25854
153.17677 -285.43576 938.8548
154.17526 -285.00247 938.66852
155.17522 -285.4631 938.78046
156.17441 -285.4769 938.74316
157.1729 -285.04367 938.55688
152.24612 -353.24783 960.46783
153.28471 -353.86185 961.71051
155.32236 -352.16196 962.0863
156.32153 -352.17569 962.04901
154.1356 -285.3425 937.72894
153.28329 -352.96799 961.41229
155.28203 -352.05508 960.99756
156.24155 -352.40891 960.02081
153.87065 -170.26883 897.23065
153.17361 -284.58835 938.59863
153.13571 -284.88193 937.61707
155.1738 -284.56931 938.48224
156.17299 -284.58304 938.44501
155.24161 -351.94815 959.90887
156.24081 -351.96188 959.8717
152.13646 -284.86813 937.65424
153.17291 -284.14139 938.44958
155.17308 -284.12234 938.33307
156.17227 -284.13614 938.2959
157.17148 -284.14981 938.25873
152.28262 -352.06039 961.15125
153.28429 -352.47458 961.22107
156.27975 -351.17502 960.66217
155.17235 -283.67545 938.1839
156.17154 -283.68918 938.14673
152.32155 -351.27347 961.94177
156.27904 -350.72806 960.51312
153.17319 -283.20102 938.10925
155.17163 -283.22849 938.03491
156.17012 -282.79538 937.84857
152.24184 -350.56625 959.57324
152.2812 -351.16653 960.85303
153.28285 -351.58066 960.92285
155.23947 -350.60739 959.46161
156.23868 -350.62119 959.42432
153.13286 -283.09421 937.02057
152.32013 -350.37961 961.64349
154.31857 -350.40707 961.56909
156.27762 -349.8342 960.21478
152.3194 -349.93259 961.49438
153.27971 -350.73337 960.66675
153.31865 -349.94638 961.45728
156.2769 -349.3873 960.06567
153.13141 -282.20035 936.72235
154.13058 -282.21408 936.68518
151.27983 -349.8121 960.44293
153.2807 -350.23996 960.47559
155.27672 -349.86697 960.29407
153.13069 -281.75339 936.57324
156.16795 -281.45456 937.40125
150.24054 -348.75107 959.05115
151.23976 -348.76474 959.01404
153.27756 -349.39255 960.21948
153.1689 -280.51956 937.2146
154.16809 -280.53323 937.17743
155.16806 -280.99387 937.28931
157.16644 -281.02133 937.21497
152.23824 -348.33163 958.82764
152.31725 -348.59189 961.04712
154.3157 -348.61935 960.97266
153.12926 -280.85959 936.27502
153.3165 -348.60556 961.00989
155.27486 -347.58591 959.50647
153.16817 -280.0726 937.06549
154.16737 -280.08633 937.02832
155.16663 -280.10007 936.99115
153.92683 -180.2081 901.59973
151.31659 -347.6843 960.78607
153.27539 -348.05179 959.77209
156.2733 -347.15262 959.32019
153.86278 -165.35269 895.59045
155.16589 -279.65317 936.84198
157.16429 -279.68057 936.76758
153.31435 -347.26486 960.56262
153.27469 -347.60489 959.62305
155.27342 -346.69199 959.20831
156.27258 -346.70572 959.17102
153.16502 -279.22525 936.80945
153.12711 -279.51877 935.8277
154.16664 -279.63943 936.87921
155.16348 -279.25272 936.73492
152.16508 -278.76456 936.69745
153.16431 -278.77829 936.66034
154.16354 -278.79202 936.62305
155.16447 -278.75925 936.54376
156.16367 -278.77298 936.50659
152.23465 -346.09695 958.08209
152.27475 -347.1442 959.51111
153.27397 -347.15793 959.47394
154.31212 -346.38474 960.22717
156.27188 -346.25876 959.02191
152.16365 -277.87076 936.39923
153.16287 -277.88443 936.36206
155.27126 -345.35117 958.76093
156.04755 -206.37106 912.35101
155.16304 -277.86539 936.24561
156.16223 -277.87912 936.20831
157.16144 -277.89285 936.1712
153.27209 -344.8768 958.68628
156.26971 -344.918 958.57465
155.16232 -277.41855 936.09644
153.2711 -345.37021 958.87744
156.26901 -344.47116 958.42548
155.26169 -364.46213 964.08392
153.16217 -277.43753 936.21295
154.16307 -277.40475 936.13367
155.16161 -276.97159 935.94739
156.1608 -276.98532 935.91016
153.23105 -344.32297 957.44849
153.27068 -343.983 958.388
156.2683 -344.02414 958.27637
153.16072 -276.54367 935.91479
154.16165 -276.51096 935.83551
155.16089 -276.52463 935.79822
156.16008 -276.53842 935.76099
153.9211 -176.63266 900.40692
153.23032 -343.87607 957.29932
156.22794 -343.91733 957.18774
153.85847 -162.67111 894.6958
155.26767 -343.11655 958.01544
156.26685 -343.13034 957.97827
154.16022 -275.61703 935.53729
155.15945 -275.63077 935.50006
156.15865 -275.6445 935.46277
154.95778 -174.96561 900.862
152.23035 -343.41537 957.18744
153.2296 -343.42917 957.15027
155.26697 -342.66965 957.86627
156.26614 -342.68344 957.8291
155.15874 -275.18381 935.35089
156.15793 -275.1976 935.31372
152.26831 -343.12192 958.16907
153.26752 -343.13559 958.13184
156.26543 -342.23642 957.67993
153.16028 -275.15646 935.42529
154.15948 -275.17014 935.38812
155.15802 -274.73691 935.20178
157.15642 -274.76437 935.12744
151.26837 -342.66122 958.05725
152.30722 -342.33493 958.95959
153.30647 -342.3486 958.92242
153.15884 -274.2626 935.12708
154.15805 -274.27628 935.0899
152.26688 -342.22806 957.87085
153.26682 -342.68869 957.98279
153.30574 -341.9017 958.77325
153.8549 -160.43643 893.95026
153.11852 -274.15567 934.03845
154.11771 -274.1694 934.00128
155.2641 -340.88199 957.26984
156.26326 -340.89572 957.23267
154.15663 -273.38248 934.79175
155.1162 -273.73618 933.81494
153.30431 -341.00784 958.47504
155.26338 -340.43503 957.12073
154.29973 -363.70786 964.95374
153.1178 -273.70877 933.88934
154.11627 -273.27554 933.703
155.15515 -272.94925 934.60535
155.11546 -273.28928 933.66577
156.15434 -272.96298 934.56818
152.30435 -340.54727 958.3631
155.2538 -359.54587 962.44373
153.11635 -272.81485 933.59106
154.11554 -272.82858 933.55396
155.15445 -272.50229 934.4563
154.11412 -271.93472 933.25574
155.15372 -272.05539 934.30713
156.15291 -272.06912 934.2699
157.1514 -271.63589 934.08374
153.30214 -339.66708 958.02771
155.26196 -339.54117 956.82251
156.26114 -339.5549 956.78534
152.17613 -359.73782 960.52704
153.85132 -158.20181 893.20471
153.11493 -271.92105 933.29285
153.26178 -339.56015 956.93909
155.26051 -338.64731 956.52435
152.11423 -271.01346 933.03186
153.15382 -271.13412 934.08337
154.15303 -271.1478 934.0462
155.15228 -271.16153 934.00891
156.15147 -271.17526 933.97174
154.26056 -338.18661 956.41248
155.2598 -338.20035 956.37524
155.15157 -270.71457 933.8598
156.15076 -270.72836 933.82263
152.30077 -338.31259 957.61755
153.26036 -338.66635 956.64081
156.25827 -337.76724 956.18884
155.25021 -357.31131 961.69824
155.15085 -270.26767 933.71075
156.15005 -270.28146 933.67358
157.14925 -270.29514 933.63635
152.26042 -338.20566 956.52893
153.25963 -338.21939 956.4917
152.15002 -269.37912 933.56616
153.15169 -269.7933 933.63605
154.15089 -269.80704 933.59882
155.15013 -269.82077 933.56158
156.14932 -269.8345 933.52441
157.14853 -269.84824 933.48718
153.84772 -155.96719 892.45917
152.25926 -336.37149 955.89044
153.25848 -336.38522 955.85321
155.1487 -268.92685 933.26337
157.14709 -268.95438 933.18903
152.11136 -269.22568 932.43542
153.11061 -269.23947 932.39825
156.14719 -268.49374 933.07703
156.25468 -335.53262 955.44336
152.10994 -268.33188 932.13721
153.10919 -268.34561 932.09998
153.14952 -268.45261 933.18866
155.14726 -268.03305 932.96521
156.14645 -268.04678 932.92798
154.40765 -380.90488 972.79712
153.1481 -267.55869 932.8905
155.14656 -267.58615 932.81604
156.14575 -267.59988 932.77887
152.25684 -335.97104 955.78339
155.21437 -334.96506 954.2428
155.25336 -334.17807 955.03326
155.14513 -266.69229 932.51782
156.1443 -266.70602 932.48065
152.2554 -335.07724 955.48517
154.40549 -379.56412 972.34991
152.10777 -266.99112 931.68994
153.10632 -266.55795 931.50354
156.10393 -266.59909 931.39197
157.10313 -266.61288 931.3548
152.25397 -334.18332 955.18689
155.29131 -333.88449 956.01489
156.29048 -333.89816 955.97766
153.14594 -266.21793 932.44312
155.104 -266.13846 931.28003
157.10242 -266.16586 931.20569
154.29134 -333.42392 955.90302
156.10321 -266.15219 931.24286
152.25325 -333.73648 955.03784
153.25175 -333.30319 954.8515
156.25038 -332.85104 954.54871
156.10179 -265.25833 930.94464
157.14137 -265.379 931.99609
153.2914 -332.96323 955.79114
154.2906 -332.97702 955.75391
155.24977 -331.94339 954.28772
153.25777 -335.93832 955.7041
155.24904 -331.49643 954.13861
153.10274 -264.32333 930.75806
155.10114 -264.3508 930.68359
154.015 -235.17996 919.94012
152.10205 -263.41574 930.49701
157.09885 -263.93124 930.46014
152.83917 -150.14346 890.55798
153.28853 -331.17551 955.19464
153.10202 -263.87637 930.60895
152.24895 -331.0549 954.14319
154.09976 -262.99625 930.27356
155.13724 -261.77609 930.87769
156.13713 -262.23679 930.98956
152.83775 -149.2496 890.25977
155.24619 -329.70883 953.54211
153.09915 -262.08865 930.01251
155.09755 -262.11606 929.93811
152.24709 -328.77377 953.35559
154.26482 -316.88766 950.38599
152.83632 -148.35568 889.96161
153.13736 -260.85483 930.65381
153.09845 -261.64175 929.8634
154.13657 -260.8685 930.6167
153.24487 -327.89365 953.02008
153.09628 -260.30099 929.41602
154.09618 -260.76163 929.52802
155.13582 -260.88223 930.57947
153.26491 -316.42697 950.27411
156.13428 -260.44901 930.39319
157.13348 -260.46274 930.35596
152.83488 -147.46188 889.66333
153.05659 -260.64096 928.47644
153.09558 -259.85403 929.26697
155.13437 -259.98843 930.28125
156.13354 -260.00217 930.24402
155.09396 -259.8815 929.19263
152.05667 -260.18033 928.36462
153.05516 -259.74716 928.17822
157.13133 -259.12204 929.90863
152.83273 -146.12112 889.216
153.24414 -327.44675 952.87103
154.09406 -259.42087 929.08069
156.23962 -326.14713 952.31207
153.09341 -258.51328 928.81964
155.13148 -258.20065 929.68481
156.13142 -258.66135 929.79663
150.83286 -145.1998 888.99219
155.13078 -257.75375 929.53564
152.83131 -145.22726 888.91785
151.3553 -371.81827 968.83789
156.12997 -257.76755 929.49847
153.24028 -326.15244 952.46582
155.23901 -325.23953 952.05109
152.19212 -344.64926 956.54614
154.27771 -324.93228 953.06995
155.23759 -324.34573 951.75281
152.82915 -143.88644 888.47046
153.23886 -325.25858 952.1676
153.23741 -324.36472 951.86932
156.23604 -323.91251 951.56653
153.23669 -323.91776 951.72021
156.2346 -323.01865 951.26831
153.23526 -323.02396 951.42206
157.12418 -254.65268 928.41754
156.12352 -253.74515 928.15649
154.12198 -252.87039 927.97479
155.23184 -320.77023 950.55994
154.12296 -252.37692 927.78357
153.23195 -319.84897 950.33618
154.23117 -319.8627 950.29907
155.23041 -319.87643 950.26184
157.12059 -252.41812 927.672
156.11755 -275.09067 934.22498
152.22247 -338.49924 955.5473
155.12004 -251.0499 927.29907
155.12146 -251.9437 927.59723
156.12065 -251.95749 927.56006
152.23032 -319.43478 950.26636
153.22954 -319.44858 950.22919
153.2692 -319.10849 951.1687
156.11923 -251.06363 927.26184
157.11772 -250.6304 927.07556
152.22961 -318.98788 950.11725
155.28345 -352.94894 961.29578
153.26775 -318.21469 950.87054
153.21956 -337.17221 955.06274
155.21796 -337.19968 954.98828
156.21718 -337.21335 954.95111
153.22809 -318.55466 949.93097
153.26633 -317.32077 950.57233
154.26624 -317.78146 950.6842
156.2253 -317.20859 949.3299
152.2196 -336.71152 954.95081
156.21576 -336.31949 954.65283
153.26561 -316.87387 950.42322
156.11565 -248.82901 926.51624
152.22601 -316.75327 949.3717
155.22469 -316.30106 949.06891
156.22388 -316.31479 949.03174
153.21742 -335.83139 954.61542
153.21599 -334.93759 954.3172
156.21359 -334.97879 954.20557
152.216 -334.4769 954.20532
153.21527 -334.49063 954.16809
153.22308 -315.42618 948.88721
154.22232 -315.43991 948.84998
156.22171 -314.97397 948.58435
153.1127 -246.5997 925.9245
155.11285 -246.58066 925.80798
155.11142 -245.68674 925.50977
156.22029 -314.08017 948.28613
152.17348 -333.02927 952.66931
155.21965 -313.17258 948.02515
156.21884 -313.18631 947.98792
154.1122 -245.673 925.547
153.22266 -314.03897 948.39783
156.27402 -347.59958 959.46924
156.21742 -312.29245 947.6897
152.21243 -332.24228 953.45972
154.17932 -312.60495 946.82458
157.10767 -244.37338 924.98804
155.21608 -310.93796 947.2796
153.10939 -243.42471 924.83862
158.00684 -232.10635 918.74756
153.17729 -310.80356 946.26532
153.21591 -310.95694 947.39612
152.20813 -329.56076 952.56506
153.21519 -310.51004 947.24701
152.96964 -231.48398 917.6958
153.21448 -310.06308 947.0979
153.21376 -309.61618 946.94879
154.213 -309.62991 946.91162
152.20598 -328.21994 952.11774
156.21027 -307.82327 946.19861
152.16417 -327.21921 950.73083
155.10283 -240.32364 923.72046
155.21034 -307.36252 946.08673
156.20953 -307.37625 946.0495
152.96533 -228.80234 916.80109
155.26555 -341.77579 957.56812
152.20169 -325.53842 951.22314
155.09924 -238.08908 922.97491
152.96175 -226.56772 916.05554
155.09781 -237.19516 922.6767
153.21161 -308.27536 946.50146
155.37663 -411.04929 980.67993
152.91994 -225.56699 914.6687
152.95818 -224.3331 915.31
152.12546 -303.0853 942.67902
152.12476 -302.63828 942.52991
154.16283 -302.32578 943.39514
155.20175 -301.99936 944.29749
154.20178 -301.53873 944.18549
155.20102 -301.55246 944.14832
154.20107 -301.09183 944.03644
152.15341 -320.51529 948.49426
154.17572 -286.3898 939.1579
157.99178 -222.72092 915.61627
152.20164 -301.55777 944.302
154.20035 -300.64487 943.88733
154.19891 -299.75107 943.58911
156.19664 -299.33163 943.36554
155.33434 -384.68069 971.88251
153.89888 -162.77798 895.78455
154.15784 -299.19724 942.35132
152.95172 -220.31076 913.96802
154.15639 -298.30338 942.05304
157.1144 -298.68454 941.00183
155.15918 -300.55173 942.76141
152.1176 -298.16904 941.03882
154.15567 -297.85648 941.90405
157.36571 -405.26669 978.66711
154.15495 -297.40958 941.75488
155.08493 -229.15054 919.9928
152.11472 -296.38132 940.44238
154.19318 -296.17563 942.39624
152.11401 -295.93442 940.29327
154.15208 -295.62186 941.15845
156.19019 -295.30923 942.02356
155.19028 -294.8486 941.91168
156.18947 -294.86234 941.87451
152.32497 -402.40964 976.86975
152.11328 -295.48752 940.14417
153.19083 -295.31454 942.17731
152.14339 -314.25833 946.40668
152.11185 -294.5936 939.84595
152.11041 -293.69974 939.54773
154.18745 -292.60031 941.20337
152.32138 -400.17502 976.12421
156.07312 -247.38132 924.98035
155.2039 -303.34018 944.74475
152.10898 -292.80588 939.24951
156.11206 -246.59439 925.77075
155.99715 -200.00717 909.1748
152.10828 -292.35898 939.1004
155.14485 -291.61313 939.7793
156.10919 -244.80667 925.17432
152.10612 -291.01822 938.65308
153.18466 -290.3519 940.49493
155.18312 -290.3793 940.42065
156.18231 -290.39304 940.38342
157.07329 -222.92099 917.83087
153.18393 -289.905 940.34589
152.10469 -290.12436 938.35486
152.89702 -211.26535 909.89722
155.18095 -289.03854 939.97327
152.17444 -308.55527 945.55701
152.14291 -288.89053 938.99622
152.31564 -396.59958 974.9314
152.10182 -288.3367 937.75842
152.35072 -394.51834 975.31665
155.98997 -195.53793 907.68372
152.06143 -288.22971 936.66974
156.13762 -287.60464 938.40002
157.13683 -287.61832 938.36285
154.13847 -287.13022 938.32544
155.1377 -287.14389 938.28821
154.17668 -285.89633 938.9668
155.17593 -285.91006 938.9295
152.34859 -393.17758 974.86926
154.34872 -393.15854 974.75281
155.34868 -393.61923 974.86469
152.09824 -286.10202 937.01294
157.13466 -286.2775 937.91553
152.09752 -285.65512 936.86377
154.17455 -284.55557 938.51941
157.13254 -284.9368 937.46826
153.17084 -306.78122 944.92334
154.21321 -284.70895 939.65015
152.12692 -303.97903 942.97717
152.05571 -284.65433 935.47681
154.1731 -283.66171 938.22119
156.16344 -303.69394 943.76801
152.30634 -390.78952 972.99292
152.09465 -283.8674 936.26733
154.13274 -283.55478 937.13251
157.13109 -284.04294 937.16992
157.30312 -391.30508 972.95605
152.09393 -283.4205 936.11823
154.13202 -283.10788 936.98346
157.12967 -283.14908 936.87183
157.06036 -214.87631 915.14691
153.09244 -282.98727 935.93195
156.12973 -282.68845 936.75989
157.12894 -282.70212 936.72272
152.05286 -282.86667 934.88043
155.12981 -282.22775 936.64795
152.3049 -389.89572 972.69476
157.1275 -281.80832 936.4245
152.30347 -389.0018 972.39648
155.34079 -388.70297 973.22443
152.05141 -281.97275 934.58221
154.12987 -281.76706 936.53613
153.06065 -213.03378 914.69928
152.05069 -281.52585 934.43304
156.12688 -280.90079 936.16339
152.14267 -313.81137 946.25763
152.08965 -280.73886 935.22357
155.12694 -280.44003 936.05151
156.12616 -280.45377 936.01428
157.12535 -280.4675 935.97717
154.127 -279.9794 935.93964
156.20471 -279.32681 937.74432
157.05608 -212.19479 914.25226
152.08891 -280.29196 935.07446
154.16594 -279.19247 936.7301
156.16437 -279.21994 936.6557
152.08748 -279.39816 934.77625
154.12556 -279.08554 935.64142
157.12392 -279.57364 935.67896
154.20389 -278.89896 937.71179
155.20314 -278.91269 937.67444
156.20258 -277.98605 937.297
153.1954 -297.05582 942.73163
157.12105 -277.78598 935.08252
154.16235 -276.95786 935.98456
156.15268 -296.99008 941.53131
152.29701 -384.97952 971.05457
156.31058 -370.39279 967.07385
152.15367 -295.59439 941.23285
153.15292 -295.60812 941.19562
155.15131 -295.63553 941.12122
152.08247 -276.26968 933.73254
153.12138 -275.94333 934.63489
153.12065 -275.49649 934.48572
157.11819 -275.99826 934.48608
152.08174 -275.82272 933.58337
152.12068 -275.03574 934.37384
154.11913 -275.0632 934.2995
152.13264 -307.55447 944.17004
153.11993 -275.04953 934.33661
155.11833 -275.07693 934.26227
157.11603 -274.65744 934.0387
152.15009 -293.35977 940.4873
155.14772 -293.40091 940.37567
152.09225 -307.44754 943.08142
153.07811 -274.04874 932.94971
152.94885 -218.5231 913.37164
153.01575 -235.16629 919.97729
156.9854 -218.23795 914.16241
155.11475 -272.84232 933.51666
153.129 -305.78049 943.53638
152.1465 -291.12509 939.74176
153.07451 -271.81418 932.20416
152.14578 -290.67819 939.59265
154.15207 -271.6412 934.2373
156.14191 -290.28616 939.29468
152.94527 -216.28842 912.6261
152.07387 -270.90659 931.94324
154.11195 -270.59396 932.80847
152.14505 -290.23129 939.44354
153.1032 -289.69113 938.16852
155.14198 -289.82553 939.18286
156.1412 -289.83926 939.14557
152.14363 -289.33737 939.14539
156.18015 -289.05228 939.9361
152.32349 -377.53513 969.65045
154.32434 -377.96304 969.68311
155.32289 -377.52988 969.49677
156.13979 -288.9454 938.84741
152.0717 -269.56577 931.49591
156.2984 -362.79501 964.539
152.14218 -288.44357 938.84705
154.31906 -375.77487 968.97968
157.10672 -268.84744 932.10034
156.13904 -288.49844 938.6983
157.106 -268.40048 931.95123
152.98062 -213.26688 912.67096
154.10838 -268.35934 932.06287
152.14005 -287.10275 938.39984
154.14731 -267.57242 932.85327
155.10471 -266.58542 931.42914
156.29482 -360.56039 963.79346
153.9763 -211.04599 911.88831
155.04736 -230.83133 919.50049
154.1048 -266.12473 931.31726
156.29195 -358.77267 963.19696
152.13503 -283.97433 937.35596
156.97107 -209.29941 911.18024
155.34053 -413.62393 980.4859
156.29123 -358.32578 963.04791
153.97272 -208.81137 911.1427
155.31285 -371.27292 967.4093
155.31212 -370.82596 967.26013
153.091 -282.09341 935.63367
152.06026 -262.41489 929.11011
156.12759 -281.34769 936.31256
153.34708 -392.74435 974.68298
153.08957 -281.19962 935.33545
155.12764 -280.88705 936.20062
157.08644 -281.25449 935.18665
155.30568 -366.80362 965.91815
156.09247 -259.44833 929.00623
152.12642 -278.61124 935.56671
153.12567 -278.62497 935.52948
155.09326 -259.43454 929.04346
152.12572 -278.16422 935.4176
153.30049 -363.69418 964.99097
155.30495 -366.35666 965.76904
157.09023 -258.56815 928.67084
154.09261 -258.52695 928.78247
152.29318 -407.66586 977.57037
156.96033 -202.59555 908.94354
153.05229 -257.95944 927.58185
157.0499 -258.46121 927.58215
156.95959 -202.14859 908.79449
155.30208 -364.56906 965.17261
152.10539 -290.57126 938.50403
153.09126 -257.17252 928.37231
157.11891 -276.44516 934.63513
153.96196 -202.10739 908.90613
154.09045 -257.18619 928.33514
155.08966 -257.19992 928.29791
155.29967 -364.16861 965.06555
152.98708 -217.28922 914.013
155.0486 -256.64609 927.06012
153.92084 -201.55368 907.66827
153.08913 -255.8317 927.92493
157.08522 -255.43967 927.62708
152.04495 -277.95047 933.24023
154.23402 -321.65036 950.89545
153.00835 -255.61789 925.74756
153.10033 -287.90347 937.57208
153.08696 -254.49094 927.47766
154.08688 -254.95151 927.5896
155.08607 -254.96524 927.55237
156.0853 -254.97897 927.51514
157.08377 -254.54587 927.3288
154.11699 -273.72244 933.85211
157.11461 -273.76364 933.74048
152.2984 -361.89279 964.43164
153.11708 -273.26181 933.74017
157.11389 -273.31674 933.59137
152.2977 -361.44583 964.28253
152.09967 -286.99588 937.31104
152.08629 -253.58334 927.21661
156.95314 -198.12631 907.45245
154.16304 -253.42416 929.21259
155.12363 -253.28452 928.04462
153.04442 -253.04324 925.94165
155.95319 -197.66562 907.34064
152.29482 -359.65817 963.6861
154.29495 -359.63907 963.5697
155.2942 -359.6528 963.53247
153.91295 -196.63742 906.02808
152.29411 -359.21115 963.53699
152.03995 -274.82199 932.19653
154.08186 -251.82309 926.54578
155.08107 -251.83676 926.50861
152.28244 -400.96201 975.33374
155.29207 -358.31198 963.08514
152.0385 -273.92813 931.89825
153.11276 -270.58029 932.84558
156.94884 -195.44473 906.55786
153.09387 -283.88107 936.2301
152.0378 -273.48117 931.74915
152.28101 -400.06808 975.03552
152.09322 -282.97354 935.96912
153.09315 -283.43417 936.08099
155.07892 -250.49606 926.06128
154.11053 -269.70016 932.51019
152.29124 -357.42349 962.94055
152.29051 -356.97659 962.7915
155.07748 -249.6022 925.76306
153.94905 -194.06277 906.22217
155.94673 -193.64328 905.99854
156.94598 -193.65707 905.96143
152.03563 -272.14041 931.30182
156.25731 -362.24124 963.30115
154.07684 -248.69455 925.50208
156.94525 -193.21017 905.81226
155.91399 -148.16379 891.87817
155.28775 -355.63046 962.19043
153.09029 -281.64651 935.48456
157.33322 -410.0759 979.21863
155.07605 -248.70834 925.46484
151.25121 -355.91562 961.39972
155.32668 -354.84348 962.9809
152.99686 -248.46707 923.36188
154.07613 -248.24765 925.35297
157.07303 -247.84189 925.09222
153.12782 -279.96573 935.97681
152.99615 -248.02017 923.21277
153.90649 -192.61514 904.68604
152.28693 -354.74191 962.0459
158.02545 -243.72647 922.62439
157.07233 -247.39499 924.94312
152.24829 -354.58859 960.91516
155.24593 -354.62973 960.80353
153.07408 -246.44626 924.7937
154.11363 -246.56693 925.84521
157.03127 -246.84116 923.70532
153.94403 -190.9343 905.17841
155.28418 -353.39584 961.44489
153.03366 -246.33939 923.70502
157.07016 -246.05423 924.49579
156.14407 -291.62692 939.74207
157.06946 -245.60733 924.34668
152.94406 -190.47366 905.06647
155.37378 -409.26157 980.0835
152.28334 -352.50729 961.30035
154.2818 -352.53476 961.22595
153.03223 -245.44553 923.4068
157.06873 -245.16037 924.19757
156.10034 -264.36453 930.64642
151.28342 -352.04666 961.18842
152.08533 -278.0574 934.32892
153.07191 -245.1055 924.34644
154.07111 -245.11923 924.3092
152.88194 -201.87991 906.76587
152.24471 -352.35397 960.16962
155.24234 -352.39511 960.05798
152.02847 -267.67117 929.81073
156.37149 -408.38144 979.74805
153.97055 -207.47061 910.69537
153.03081 -244.55161 923.10852
156.09964 -263.91757 930.49731
156.93883 -189.18777 904.47034
154.28133 -351.14755 960.73657
155.28058 -351.16122 960.69934
152.02632 -266.33041 929.3634
153.03006 -244.10471 922.95947
155.39594 -399.13571 977.78473
155.06816 -243.79214 923.82458
156.06738 -243.80588 923.78741
157.06657 -243.81955 923.75024
152.94119 -188.68594 904.47003
153.94044 -188.69962 904.43286
154.06178 -239.30917 922.37079
153.88356 -178.31357 899.91455
152.9897 -243.99777 921.87079
153.02936 -243.65781 922.81036
154.06824 -243.33151 923.71283
155.06743 -243.34525 923.6756
157.06587 -243.37265 923.6012
151.28053 -350.25894 960.59204
153.08241 -276.73032 933.84436
152.98254 -239.52853 920.3797
153.06833 -242.87082 923.60077
153.89934 -188.1459 903.19495
155.17926 -313.06564 946.93646
152.02562 -265.88339 929.21436
154.06752 -242.88461 923.56366
155.06673 -242.89828 923.52643
156.06595 -242.91208 923.48926
157.06514 -242.92575 923.45203
157.09526 -261.69662 929.7146
154.09764 -261.65543 929.82623
156.93523 -186.95316 903.72479
154.27774 -348.91293 959.99109
155.27699 -348.92661 959.95386
152.02345 -264.54269 928.76697
153.1058 -241.19003 924.09302
154.06537 -241.54379 923.11633
155.06458 -241.55753 923.07904
157.02338 -241.92496 922.06506
152.05975 -237.04709 921.69958
154.0582 -237.07455 921.62524
157.02264 -241.47806 921.91602
151.27766 -348.47128 959.99561
152.27689 -348.48508 959.95837
155.27629 -348.47964 959.80475
153.07883 -274.49564 933.09888
155.27986 -350.71432 960.55029
153.06476 -240.63626 922.85522
156.93237 -185.16544 903.12836
152.08678 -278.95126 934.62714
153.02435 -240.52933 921.76654
154.02361 -240.54306 921.72943
155.06314 -240.66367 922.78088
157.02052 -240.1373 921.46869
153.0229 -239.63547 921.46838
155.10068 -238.98288 923.27313
156.06094 -239.78354 922.44543
157.06015 -239.79721 922.40826
156.09102 -258.55441 928.70801
153.93327 -184.23038 902.94177
152.23608 -346.99081 958.38031
157.0587 -238.90341 922.11011
152.2733 -346.25034 959.21283
155.27271 -346.24503 959.0592
154.09119 -257.63315 928.48425
152.87262 -196.06985 904.82751
153.06046 -237.95468 921.96063
153.10008 -237.61472 922.90021
154.06036 -238.41531 922.07257
155.05956 -238.42905 922.03534
156.05878 -238.44278 921.99811
152.23393 -345.65005 957.93298
152.01775 -260.96725 927.5741
156.0889 -257.21371 928.26068
157.05582 -237.11569 921.51367
158.00826 -233.00021 919.04572
152.05905 -236.60013 921.55054
153.0583 -236.61386 921.51331
154.0575 -236.62766 921.4762
152.23108 -343.86234 957.33655
153.01718 -236.06003 920.27551
154.09572 -235.39377 922.11749
155.09496 -235.40744 922.08032
157.92368 -180.26303 901.45093
152.97679 -235.95316 919.18683
156.05374 -235.3143 920.95435
154.22806 -342.99594 956.96399
155.27054 -344.90427 958.61182
155.26625 -342.22275 957.71716
154.01428 -234.733 919.79102
154.05391 -234.39297 920.73059
155.05312 -234.40671 920.69336
156.0927 -234.52737 921.74481
157.05153 -234.43411 920.61902
152.26614 -341.7811 957.7218
154.05319 -233.94608 920.58148
155.0524 -233.95981 920.54419
157.05083 -233.98721 920.46985
153.0136 -233.82547 919.53003
156.05162 -233.97354 920.50702
156.9216 -178.46158 900.89172
156.92088 -178.01462 900.74255
155.05095 -233.06595 920.24603
153.08411 -252.70322 926.88123
157.0802 -252.31119 926.58325
153.00906 -256.06479 925.89673
154.01141 -232.94528 919.19458
154.05104 -232.60532 920.13409
154.05032 -232.15836 919.98505
157.91722 -176.24069 900.10895
152.96461 -228.35544 916.65198
157.04724 -231.75266 919.72437
153.04227 -251.70248 925.49432
152.00769 -254.7103 925.48657
154.04962 -231.7114 919.83594
155.04881 -231.72519 919.79871
156.04803 -231.73886 919.76147
157.04651 -231.30563 919.57526
154.04817 -230.8176 919.53772
156.08624 -230.50504 920.40283
156.26256 -340.44876 957.08356
154.04745 -230.37064 919.38855
156.04588 -230.39816 919.31415
157.04579 -230.85873 919.42615
154.41748 -412.08286 982.14612
152.22176 -338.05234 955.39813
157.99751 -226.29636 916.80914
154.94826 -194.07651 906.18494
154.04674 -229.92374 919.2395
157.04437 -229.96494 919.12787
152.38298 -414.62997 982.02649
152.22032 -337.15842 955.09991
155.25836 -337.30649 956.07697
152.96104 -226.12082 915.90643
156.04517 -229.95126 919.1651
153.41754 -411.62216 982.0343
156.41447 -411.2164 981.77344
153.00642 -229.35617 918.03894
154.00568 -229.3699 918.00171
154.04602 -229.47684 919.09045
157.0033 -229.41104 917.89008
154.00496 -228.92294 917.85254
154.04459 -228.58292 918.79218
156.07382 -247.82822 925.12939
154.04387 -228.13602 918.64307
155.04308 -228.14975 918.60583
156.043 -228.61038 918.71771
157.04221 -228.62411 918.68054
158.0011 -228.53098 917.55469
152.95746 -223.88614 915.16089
154.04315 -227.68912 918.49396
157.04079 -227.73026 918.38232
153.0755 -247.34018 925.09192
155.04237 -227.70285 918.45673
156.04158 -227.71658 918.41956
157.00044 -227.62338 917.29364
153.04253 -226.78152 918.23291
